150.806 128.531 -1225.81
150.155 128.531 -1225.81
149.505 128.531 -1225.81
148.855 128.531 -1225.81
148.204 128.531 -1225.81
147.554 128.531 -1225.81
146.903 128.531 -1225.81
146.253 128.531 -1225.81
145.603 128.531 -1225.81
144.952 128.531 -1225.81
144.302 128.531 -1225.81
143.651 128.531 -1225.81
143.001 128.531 -1225.81
142.351 128.531 -1225.81
141.7 128.531 -1225.81
141.05 128.531 -1225.81
140.399 128.531 -1225.81
-46.0215 -42.3271 403.68
-45.8073 -42.3271 403.68
-45.5932 -42.3271 403.68
-45.379 -42.3271 403.68
137.147 128.531 -1225.81
-44.9506 -42.3271 403.68
-44.7364 -42.3271 403.68
-44.5222 -42.3271 403.68
-44.308 -42.3271 403.68
-44.0939 -42.3271 403.68
-43.8797 -42.3271 403.68
-43.6655 -42.3271 403.68
-43.4513 -42.3271 403.68
-43.2371 -42.3271 403.68
-43.0229 -42.3271 403.68
-42.8087 -42.3271 403.68
-42.5945 -42.3271 403.68
-42.3804 -42.3271 403.68
-42.1662 -42.3271 403.68
-41.952 -42.3271 403.68
-41.7378 -42.3271 403.68
-41.5236 -42.3271 403.68
-41.3094 -42.3271 403.68
-41.0952 -42.3271 403.68
-40.8811 -42.3271 403.68
-40.6669 -42.3271 403.68
-40.4527 -42.3271 403.68
-40.2385 -42.3271 403.68
-40.0243 -42.3271 403.68
-39.8101 -42.3271 403.68
-39.5959 -42.3271 403.68
-39.3817 -42.3271 403.68
-39.1676 -42.3271 403.68
-38.9534 -42.3271 403.68
-38.7392 -42.3271 403.68
-38.525 -42.3271 403.68
-38.3108 -42.3271 403.68
-38.0966 -42.3271 403.68
-37.8824 -42.3271 403.68
-37.6683 -42.3271 403.68
-37.4541 -42.3271 403.68
-37.2399 -42.3271 403.68
112.432 128.531 -1225.81
111.782 128.531 -1225.81
111.132 128.531 -1225.81
110.481 128.531 -1225.81
109.831 128.531 -1225.81
109.18 128.531 -1225.81
108.53 128.531 -1225.81
107.88 128.531 -1225.81
-38.5119 -46.1624 440.257
-38.2783 -46.1624 440.257
-38.0447 -46.1624 440.257
-37.8111 -46.1624 440.257
-37.5775 -46.1624 440.257
-37.3439 -46.1624 440.257
-37.1103 -46.1624 440.257
-36.8767 -46.1624 440.257
102.026 128.531 -1225.81
-36.4095 -46.1624 440.257
-36.1759 -46.1624 440.257
-35.9423 -46.1624 440.257
-35.7087 -46.1624 440.257
-35.4751 -46.1624 440.257
-35.2415 -46.1624 440.257
-33.4906 -44.1616 421.176
-33.2672 -44.1616 421.176
-33.0437 -44.1616 421.176
95.5219 128.531 -1225.81
-31.2427 -42.3271 403.68
-31.0285 -42.3271 403.68
-30.8143 -42.3271 403.68
-30.6001 -42.3271 403.68
-30.3859 -42.3271 403.68
-30.1717 -42.3271 403.68
-29.9575 -42.3271 403.68
-29.7434 -42.3271 403.68
-29.5292 -42.3271 403.68
-29.315 -42.3271 403.68
-29.1008 -42.3271 403.68
-28.8866 -42.3271 403.68
-28.6724 -42.3271 403.68
86.4163 128.531 -1225.81
85.7659 128.531 -1225.81
-28.0299 -42.3271 403.68
-27.8157 -42.3271 403.68
-27.6015 -42.3271 403.68
83.1643 128.531 -1225.81
82.5139 128.531 -1225.81
81.8635 128.531 -1225.81
81.2131 128.531 -1225.81
80.5627 128.531 -1225.81
79.9123 128.531 -1225.81
79.2619 128.531 -1225.81
78.6115 128.531 -1225.81
77.9611 128.531 -1225.81
77.3107 128.531 -1225.81
76.6603 128.531 -1225.81
76.0099 128.531 -1225.81
-25.8927 -44.1616 421.176
-10.5623 -18.1715 173.304
74.0588 128.531 -1225.81
73.4084 128.531 -1225.81
72.7579 128.531 -1225.81
72.1076 128.531 -1225.81
71.4572 128.531 -1225.81
70.8068 128.531 -1225.81
70.1564 128.531 -1225.81
69.506 128.531 -1225.81
68.8556 128.531 -1225.81
68.2052 128.531 -1225.81
67.5548 128.531 -1225.81
66.9044 128.531 -1225.81
66.254 128.531 -1225.81
65.6036 128.531 -1225.81
64.9532 128.531 -1225.81
64.3028 128.531 -1225.81
63.6524 128.531 -1225.81
63.002 128.531 -1225.81
62.3516 128.531 -1225.81
61.7012 128.531 -1225.81
61.0508 128.531 -1225.81
60.4004 128.531 -1225.81
59.75 128.531 -1225.81
59.0996 128.531 -1225.81
58.4492 128.531 -1225.81
57.7988 128.531 -1225.81
57.1484 128.531 -1225.81
56.498 128.531 -1225.81
-6.22926 -14.3364 136.728
-6.15671 -14.3364 136.728
-6.08417 -14.3364 136.728
53.8964 128.531 -1225.81
53.246 128.531 -1225.81
52.5956 128.531 -1225.81
51.9452 128.531 -1225.81
51.2948 128.531 -1225.81
50.6444 128.531 -1225.81
49.994 128.531 -1225.81
49.3436 128.531 -1225.81
48.6932 128.531 -1225.81
48.0428 128.531 -1225.81
47.3924 128.531 -1225.81
46.742 128.531 -1225.81
46.0916 128.531 -1225.81
45.4412 128.531 -1225.81
44.7908 128.531 -1225.81
44.1404 128.531 -1225.81
43.49 128.531 -1225.81
42.8396 128.531 -1225.81
42.1892 128.531 -1225.81
41.5388 128.531 -1225.81
-5.78075 -18.1715 173.304
-5.68879 -18.1715 173.304
-5.59684 -18.1715 173.304
-5.50489 -18.1715 173.304
-5.41294 -18.1715 173.304
-5.32098 -18.1715 173.304
-5.22903 -18.1715 173.304
-5.13708 -18.1715 173.304
-5.04513 -18.1715 173.304
-3.9078 -14.3364 136.728
-3.83525 -14.3364 136.728
-3.7627 -14.3364 136.728
33.0836 128.531 -1225.81
32.4332 128.531 -1225.81
31.7828 128.531 -1225.81
31.1324 128.531 -1225.81
-4.3095 -18.1715 173.304
-4.21755 -18.1715 173.304
-4.1256 -18.1715 173.304
-4.03365 -18.1715 173.304
-3.94169 -18.1715 173.304
-3.84974 -18.1715 173.304
-3.75779 -18.1715 173.304
-3.66584 -18.1715 173.304
-3.57388 -18.1715 173.304
24.6284 128.531 -1225.81
23.978 128.531 -1225.81
23.3276 128.531 -1225.81
22.6772 128.531 -1225.81
22.0268 128.531 -1225.81
21.3764 128.531 -1225.81
20.726 128.531 -1225.81
20.0756 128.531 -1225.81
19.4252 128.531 -1225.81
18.7748 128.531 -1225.81
-2.02161 -14.3364 136.728
-1.94906 -14.3364 136.728
-1.87651 -14.3364 136.728
-1.80397 -14.3364 136.728
-1.73142 -14.3364 136.728
-1.65888 -14.3364 136.728
-1.58633 -14.3364 136.728
-1.51378 -14.3364 136.728
-1.44124 -14.3364 136.728
-1.36869 -14.3364 136.728
-1.29615 -14.3364 136.728
-1.2236 -14.3364 136.728
-1.15106 -14.3364 136.728
-1.07851 -14.3364 136.728
-1.00596 -14.3364 136.728
-0.933418 -14.3364 136.728
-0.860872 -14.3364 136.728
-0.788327 -14.3364 136.728
-0.715781 -14.3364 136.728
-0.643235 -14.3364 136.728
-0.570689 -14.3364 136.728
-0.498143 -14.3364 136.728
-0.425598 -14.3364 136.728
-0.353052 -14.3364 136.728
-0.280506 -14.3364 136.728
-0.20796 -14.3364 136.728
-0.135415 -14.3364 136.728
-0.0628687 -14.3364 136.728
0.00967705 -14.3364 136.728
0.0822228 -14.3364 136.728
0.154769 -14.3364 136.728
0.227314 -14.3364 136.728
0.29986 -14.3364 136.728
0.413092 -15.9026 151.665
0.493563 -15.9026 151.665
0.574035 -15.9026 151.665
0.654506 -15.9026 151.665
0.734978 -15.9026 151.665
-6.59075 128.531 -1225.81
-7.24115 128.531 -1225.81
-7.89155 128.531 -1225.81
-8.54195 128.531 -1225.81
-9.19235 128.531 -1225.81
-9.84275 128.531 -1225.81
-10.4931 128.531 -1225.81
-11.1435 128.531 -1225.81
-11.7939 128.531 -1225.81
-12.4443 128.531 -1225.81
-13.0947 128.531 -1225.81
1.70064 -15.9026 151.665
-14.3955 128.531 -1225.81
-15.0459 128.531 -1225.81
1.94205 -15.9026 151.665
2.02252 -15.9026 151.665
2.10299 -15.9026 151.665
2.18346 -15.9026 151.665
2.04096 -14.3364 136.728
2.1135 -14.3364 136.728
2.18605 -14.3364 136.728
2.2586 -14.3364 136.728
-20.8995 128.531 -1225.81
-21.5499 128.531 -1225.81
2.47623 -14.3364 136.728
2.54878 -14.3364 136.728
2.62133 -14.3364 136.728
2.69387 -14.3364 136.728
2.76642 -14.3364 136.728
2.83896 -14.3364 136.728
2.91151 -14.3364 136.728
2.98405 -14.3364 136.728
3.0566 -14.3364 136.728
3.12915 -14.3364 136.728
3.20169 -14.3364 136.728
3.27424 -14.3364 136.728
3.34678 -14.3364 136.728
3.41933 -14.3364 136.728
3.49187 -14.3364 136.728
3.56442 -14.3364 136.728
3.63697 -14.3364 136.728
3.70951 -14.3364 136.728
3.78206 -14.3364 136.728
3.8546 -14.3364 136.728
-35.2083 128.531 -1225.81
3.9997 -14.3364 136.728
4.07224 -14.3364 136.728
4.14479 -14.3364 136.728
4.21733 -14.3364 136.728
4.28988 -14.3364 136.728
4.36242 -14.3364 136.728
4.43497 -14.3364 136.728
4.50752 -14.3364 136.728
4.58006 -14.3364 136.728
4.65261 -14.3364 136.728
4.72515 -14.3364 136.728
4.7977 -14.3364 136.728
4.87024 -14.3364 136.728
4.94279 -14.3364 136.728
5.01534 -14.3364 136.728
5.08788 -14.3364 136.728
5.16043 -14.3364 136.728
5.23297 -14.3364 136.728
5.30552 -14.3364 136.728
5.37807 -14.3364 136.728
5.45061 -14.3364 136.728
5.52316 -14.3364 136.728
5.5957 -14.3364 136.728
5.66825 -14.3364 136.728
5.74079 -14.3364 136.728
5.81334 -14.3364 136.728
5.88589 -14.3364 136.728
5.95843 -14.3364 136.728
6.03098 -14.3364 136.728
6.10352 -14.3364 136.728
6.17607 -14.3364 136.728
6.24861 -14.3364 136.728
6.32116 -14.3364 136.728
6.39371 -14.3364 136.728
6.46625 -14.3364 136.728
6.5388 -14.3364 136.728
6.61134 -14.3364 136.728
6.68389 -14.3364 136.728
6.75644 -14.3364 136.728
6.82898 -14.3364 136.728
6.90153 -14.3364 136.728
7.17601 -14.7515 140.687
7.25065 -14.7515 140.687
7.22076 -14.5409 138.679
7.29434 -14.5409 138.679
7.47459 -14.7515 140.687
7.54924 -14.7515 140.687
7.62389 -14.7515 140.687
7.58867 -14.5409 138.679
7.66225 -14.5409 138.679
7.73583 -14.5409 138.679
7.80941 -14.5409 138.679
7.88299 -14.5409 138.679
7.95657 -14.5409 138.679
8.03015 -14.5409 138.679
8.10373 -14.5409 138.679
8.17732 -14.5409 138.679
8.2509 -14.5409 138.679
8.32448 -14.5409 138.679
8.2799 -14.3364 136.728
8.35244 -14.3364 136.728
8.42499 -14.3364 136.728
8.49753 -14.3364 136.728
8.57008 -14.3364 136.728
8.64263 -14.3364 136.728
8.71517 -14.3364 136.728
8.78772 -14.3364 136.728
8.86026 -14.3364 136.728
8.93281 -14.3364 136.728
9.00535 -14.3364 136.728
-81.3867 128.531 -1225.81
-82.0371 128.531 -1225.81
-82.6875 128.531 -1225.81
-83.3379 128.531 -1225.81
9.50177 -14.5409 138.679
9.57536 -14.5409 138.679
9.51318 -14.3364 136.728
9.58572 -14.3364 136.728
9.65827 -14.3364 136.728
9.86968 -14.5409 138.679
9.94326 -14.5409 138.679
-88.5411 128.531 -1225.81
-89.1915 128.531 -1225.81
-89.8419 128.531 -1225.81
-90.4922 128.531 -1225.81
11.1034 -15.6582 149.335
11.1827 -15.6582 149.335
-92.4434 128.531 -1225.81
-93.0938 128.531 -1225.81
-93.7442 128.531 -1225.81
10.9928 -14.9682 142.753
10.9083 -14.7515 140.687
10.8262 -14.5409 138.679
10.7465 -14.3364 136.728
10.819 -14.3364 136.728
10.8915 -14.3364 136.728
10.9641 -14.3364 136.728
-98.9474 128.531 -1225.81
-99.5978 128.531 -1225.81
-100.248 128.531 -1225.81
-100.899 128.531 -1225.81
-101.549 128.531 -1225.81
-102.199 128.531 -1225.81
-102.85 128.531 -1225.81
-103.5 128.531 -1225.81
-104.151 128.531 -1225.81
-104.801 128.531 -1225.81
-105.451 128.531 -1225.81
-106.102 128.531 -1225.81
-106.752 128.531 -1225.81
-107.403 128.531 -1225.81
-108.053 128.531 -1225.81
-108.703 128.531 -1225.81
-109.354 128.531 -1225.81
-110.004 128.531 -1225.81
12.5186 -14.5409 138.679
12.415 -14.3364 136.728
12.4876 -14.3364 136.728
12.5601 -14.3364 136.728
12.6326 -14.3364 136.728
12.7052 -14.3364 136.728
12.7777 -14.3364 136.728
12.8503 -14.3364 136.728
12.9228 -14.3364 136.728
12.9954 -14.3364 136.728
-117.159 128.531 -1225.81
-117.809 128.531 -1225.81
-118.459 128.531 -1225.81
-119.11 128.531 -1225.81
-119.76 128.531 -1225.81
-120.411 128.531 -1225.81
13.5032 -14.3364 136.728
13.5757 -14.3364 136.728
13.6483 -14.3364 136.728
13.7208 -14.3364 136.728
-123.663 128.531 -1225.81
-124.313 128.531 -1225.81
-124.963 128.531 -1225.81
-125.614 128.531 -1225.81
-126.264 128.531 -1225.81
-126.915 128.531 -1225.81
-127.565 128.531 -1225.81
-128.215 128.531 -1225.81
-128.866 128.531 -1225.81
-129.516 128.531 -1225.81
-130.167 128.531 -1225.81
-130.817 128.531 -1225.81
-131.467 128.531 -1225.81
-132.118 128.531 -1225.81
-132.768 128.531 -1225.81
-133.419 128.531 -1225.81
-134.069 128.531 -1225.81
-134.719 128.531 -1225.81
-135.37 128.531 -1225.81
15.3883 -14.5409 138.679
15.2443 -14.3364 136.728
15.3168 -14.3364 136.728
15.3894 -14.3364 136.728
15.4619 -14.3364 136.728
15.5345 -14.3364 136.728
15.607 -14.3364 136.728
15.6796 -14.3364 136.728
15.7521 -14.3364 136.728
15.8247 -14.3364 136.728
15.8972 -14.3364 136.728
15.9698 -14.3364 136.728
16.0423 -14.3364 136.728
16.1148 -14.3364 136.728
16.1874 -14.3364 136.728
16.2599 -14.3364 136.728
16.3325 -14.3364 136.728
16.405 -14.3364 136.728
16.4776 -14.3364 136.728
-148.378 128.531 -1225.81
-149.028 128.531 -1225.81
-149.679 128.531 -1225.81
-150.329 128.531 -1225.81
-150.979 128.531 -1225.81
-151.63 128.531 -1225.81
-152.28 128.531 -1225.81
-152.931 128.531 -1225.81
28.2664 -23.6559 225.61
28.3861 -23.6559 225.61
28.5058 -23.6559 225.61
28.6255 -23.6559 225.61
28.7453 -23.6559 225.61
28.865 -23.6559 225.61
-157.483 128.531 -1225.81
-158.134 128.531 -1225.81
-158.784 128.531 -1225.81
-159.435 128.531 -1225.81
-160.085 128.531 -1225.81
-160.735 128.531 -1225.81
-161.386 128.531 -1225.81
-162.036 128.531 -1225.81
-162.687 128.531 -1225.81
-163.337 128.531 -1225.81
-163.987 128.531 -1225.81
31.0216 -24.2182 230.972
30.4211 -23.6559 225.61
30.5408 -23.6559 225.61
30.6605 -23.6559 225.61
30.7802 -23.6559 225.61
30.8999 -23.6559 225.61
18.799 -14.3364 136.728
18.8716 -14.3364 136.728
18.9441 -14.3364 136.728
19.0167 -14.3364 136.728
-171.142 128.531 -1225.81
-171.792 128.531 -1225.81
-172.443 128.531 -1225.81
-173.093 128.531 -1225.81
-173.743 128.531 -1225.81
-174.394 128.531 -1225.81
-175.044 128.531 -1225.81
19.597 -14.3364 136.728
19.6696 -14.3364 136.728
19.7421 -14.3364 136.728
19.8147 -14.3364 136.728
19.8872 -14.3364 136.728
19.9598 -14.3364 136.728
20.0323 -14.3364 136.728
20.3918 -14.5409 138.679
20.4654 -14.5409 138.679
20.5389 -14.5409 138.679
20.6125 -14.5409 138.679
20.6861 -14.5409 138.679
-183.499 128.531 -1225.81
-184.15 128.531 -1225.81
-184.8 128.531 -1225.81
20.6852 -14.3364 136.728
20.7578 -14.3364 136.728
20.8303 -14.3364 136.728
20.9029 -14.3364 136.728
20.9754 -14.3364 136.728
21.048 -14.3364 136.728
21.1205 -14.3364 136.728
21.193 -14.3364 136.728
21.2656 -14.3364 136.728
21.3381 -14.3364 136.728
21.4107 -14.3364 136.728
21.4832 -14.3364 136.728
21.5558 -14.3364 136.728
21.6283 -14.3364 136.728
21.7009 -14.3364 136.728
21.7734 -14.3364 136.728
21.846 -14.3364 136.728
21.9185 -14.3364 136.728
21.9911 -14.3364 136.728
22.0636 -14.3364 136.728
22.1361 -14.3364 136.728
22.2087 -14.3364 136.728
22.2812 -14.3364 136.728
22.3538 -14.3364 136.728
22.4263 -14.3364 136.728
22.4989 -14.3364 136.728
22.5714 -14.3364 136.728
22.644 -14.3364 136.728
22.7165 -14.3364 136.728
22.7891 -14.3364 136.728
22.8616 -14.3364 136.728
22.9341 -14.3364 136.728
23.0067 -14.3364 136.728
23.0792 -14.3364 136.728
23.1518 -14.3364 136.728
23.2243 -14.3364 136.728
23.2969 -14.3364 136.728
23.3694 -14.3364 136.728
23.442 -14.3364 136.728
23.5145 -14.3364 136.728
23.5871 -14.3364 136.728
23.6596 -14.3364 136.728
23.7322 -14.3364 136.728
23.8047 -14.3364 136.728
23.8772 -14.3364 136.728
23.9498 -14.3364 136.728
24.0223 -14.3364 136.728
24.0949 -14.3364 136.728
24.1674 -14.3364 136.728
24.24 -14.3364 136.728
24.3125 -14.3364 136.728
24.3851 -14.3364 136.728
24.4576 -14.3364 136.728
24.5302 -14.3364 136.728
24.6027 -14.3364 136.728
24.6752 -14.3364 136.728
24.7478 -14.3364 136.728
24.8203 -14.3364 136.728
24.8929 -14.3364 136.728
24.9654 -14.3364 136.728
25.038 -14.3364 136.728
25.1105 -14.3364 136.728
25.1831 -14.3364 136.728
25.2556 -14.3364 136.728
25.3282 -14.3364 136.728
25.4007 -14.3364 136.728
25.4732 -14.3364 136.728
25.5458 -14.3364 136.728
25.6183 -14.3364 136.728
25.6909 -14.3364 136.728
25.7634 -14.3364 136.728
25.836 -14.3364 136.728
25.9085 -14.3364 136.728
25.9811 -14.3364 136.728
26.0536 -14.3364 136.728
26.1262 -14.3364 136.728
26.1987 -14.3364 136.728
26.2713 -14.3364 136.728
-236.182 128.531 -1225.81
-236.832 128.531 -1225.81
-237.482 128.531 -1225.81
-238.133 128.531 -1225.81
-238.783 128.531 -1225.81
-239.434 128.531 -1225.81
-240.084 128.531 -1225.81
-240.734 128.531 -1225.81
-241.385 128.531 -1225.81
26.9967 -14.3364 136.728
27.0693 -14.3364 136.728
27.1418 -14.3364 136.728
27.2143 -14.3364 136.728
27.2869 -14.3364 136.728
27.3594 -14.3364 136.728
27.432 -14.3364 136.728
27.5045 -14.3364 136.728
27.5771 -14.3364 136.728
27.6496 -14.3364 136.728
27.7222 -14.3364 136.728
27.7947 -14.3364 136.728
27.8673 -14.3364 136.728
27.9398 -14.3364 136.728
28.0124 -14.3364 136.728
28.0849 -14.3364 136.728
28.1574 -14.3364 136.728
28.23 -14.3364 136.728
-253.742 128.531 -1225.81
-254.393 128.531 -1225.81
-255.043 128.531 -1225.81
-255.694 128.531 -1225.81
-256.344 128.531 -1225.81
-256.994 128.531 -1225.81
28.7378 -14.3364 136.728
28.8104 -14.3364 136.728
28.8829 -14.3364 136.728
28.9554 -14.3364 136.728
29.028 -14.3364 136.728
29.1005 -14.3364 136.728
29.1731 -14.3364 136.728
29.2456 -14.3364 136.728
29.3182 -14.3364 136.728
29.3907 -14.3364 136.728
29.4633 -14.3364 136.728
29.5358 -14.3364 136.728
29.6084 -14.3364 136.728
29.6809 -14.3364 136.728
29.7535 -14.3364 136.728
29.826 -14.3364 136.728
29.8985 -14.3364 136.728
29.9711 -14.3364 136.728
30.0436 -14.3364 136.728
30.1162 -14.3364 136.728
30.1887 -14.3364 136.728
30.2613 -14.3364 136.728
30.3338 -14.3364 136.728
30.4064 -14.3364 136.728
30.4789 -14.3364 136.728
-273.905 128.531 -1225.81
-274.555 128.531 -1225.81
-275.206 128.531 -1225.81
-275.856 128.531 -1225.81
-276.506 128.531 -1225.81
-277.157 128.531 -1225.81
30.9867 -14.3364 136.728
31.0593 -14.3364 136.728
31.1318 -14.3364 136.728
31.2044 -14.3364 136.728
31.2769 -14.3364 136.728
31.3495 -14.3364 136.728
31.422 -14.3364 136.728
31.4946 -14.3364 136.728
31.5671 -14.3364 136.728
31.6396 -14.3364 136.728
31.7122 -14.3364 136.728
-284.962 128.531 -1225.81
-285.612 128.531 -1225.81
-286.262 128.531 -1225.81
-286.913 128.531 -1225.81
32.0749 -14.3364 136.728
32.1475 -14.3364 136.728
32.22 -14.3364 136.728
32.2926 -14.3364 136.728
32.3651 -14.3364 136.728
32.4376 -14.3364 136.728
32.5102 -14.3364 136.728
32.5827 -14.3364 136.728
32.6553 -14.3364 136.728
32.7278 -14.3364 136.728
32.8004 -14.3364 136.728
32.8729 -14.3364 136.728
32.9455 -14.3364 136.728
33.018 -14.3364 136.728
33.0906 -14.3364 136.728
33.1631 -14.3364 136.728
33.2356 -14.3364 136.728
33.3082 -14.3364 136.728
33.3807 -14.3364 136.728
33.4533 -14.3364 136.728
-300.571 128.531 -1225.81
-301.222 128.531 -1225.81
33.6709 -14.3364 136.728
33.7435 -14.3364 136.728
33.816 -14.3364 136.728
33.8886 -14.3364 136.728
-304.474 128.531 -1225.81
-305.124 128.531 -1225.81
-305.774 128.531 -1225.81
-306.425 128.531 -1225.81
-307.075 128.531 -1225.81
-307.726 128.531 -1225.81
-308.376 128.531 -1225.81
-309.026 128.531 -1225.81
-309.677 128.531 -1225.81
-310.327 128.531 -1225.81
-310.978 128.531 -1225.81
-311.628 128.531 -1225.81
34.8317 -14.3364 136.728
34.9042 -14.3364 136.728
34.9767 -14.3364 136.728
35.0493 -14.3364 136.728
35.1218 -14.3364 136.728
35.1944 -14.3364 136.728
104.123 -42.3271 403.68
-316.831 128.531 -1225.81
-317.482 128.531 -1225.81
-318.132 128.531 -1225.81
-318.782 128.531 -1225.81
-319.433 128.531 -1225.81
-320.083 128.531 -1225.81
-320.734 128.531 -1225.81
-321.384 128.531 -1225.81
-322.034 128.531 -1225.81
-322.685 128.531 -1225.81
-323.335 128.531 -1225.81
-323.986 128.531 -1225.81
-324.636 128.531 -1225.81
-325.286 128.531 -1225.81
-325.937 128.531 -1225.81
-326.587 128.531 -1225.81
-327.238 128.531 -1225.81
-327.888 128.531 -1225.81
108.193 -42.3271 403.68
108.407 -42.3271 403.68
108.621 -42.3271 403.68
108.835 -42.3271 403.68
109.05 -42.3271 403.68
-331.79 128.531 -1225.81
-332.441 128.531 -1225.81
-333.091 128.531 -1225.81
-333.742 128.531 -1225.81
239.41 -92.0223 877.63
220.006 -84.3999 804.934
220.433 -84.3999 804.934
220.86 -84.3999 804.934
221.288 -84.3999 804.934
204.754 -77.9436 743.359
205.149 -77.9436 743.359
205.543 -77.9436 743.359
191.304 -72.4049 690.536
178.953 -67.6012 644.722
-340.896 128.531 -1225.81
-341.546 128.531 -1225.81
-342.197 128.531 -1225.81
-342.847 128.531 -1225.81
-343.498 128.531 -1225.81
-344.148 128.531 -1225.81
-344.798 128.531 -1225.81
129.957 -48.353 461.15
130.202 -48.353 461.15
130.447 -48.353 461.15
130.691 -48.353 461.15
114.618 -42.3271 403.68
114.833 -42.3271 403.68
115.047 -42.3271 403.68
115.261 -42.3271 403.68
115.475 -42.3271 403.68
115.689 -42.3271 403.68
115.903 -42.3271 403.68
116.118 -42.3271 403.68
116.332 -42.3271 403.68
116.546 -42.3271 403.68
116.76 -42.3271 403.68
116.974 -42.3271 403.68
-355.855 128.531 -1225.81
117.403 -42.3271 403.68
117.617 -42.3271 403.68
134.606 -48.353 461.15
-358.457 128.531 -1225.81
118.26 -42.3271 403.68
118.474 -42.3271 403.68
118.688 -42.3271 403.68
-361.058 128.531 -1225.81
-361.709 128.531 -1225.81
-362.359 128.531 -1225.81
-363.01 128.531 -1225.81
-363.66 128.531 -1225.81
-364.31 128.531 -1225.81
-364.961 128.531 -1225.81
-365.611 128.531 -1225.81
-366.262 128.531 -1225.81
-366.912 128.531 -1225.81
-367.562 128.531 -1225.81
-368.213 128.531 -1225.81
-368.863 128.531 -1225.81
-369.514 128.531 -1225.81
104.531 -36.296 346.16
101.113 -35.0475 334.253
101.29 -35.0475 334.253
101.468 -35.0475 334.253
105.266 -36.296 346.16
105.45 -36.296 346.16
105.633 -36.296 346.16
105.817 -36.296 346.16
106.001 -36.296 346.16
106.184 -36.296 346.16
-376.668 128.531 -1225.81
-377.318 128.531 -1225.81
-377.969 128.531 -1225.81
-378.619 128.531 -1225.81
88.2424 -29.9045 285.203
88.3938 -29.9045 285.203
88.5451 -29.9045 285.203
88.6964 -29.9045 285.203
88.8477 -29.9045 285.203
88.9991 -29.9045 285.203
89.1504 -29.9045 285.203
89.3017 -29.9045 285.203
89.453 -29.9045 285.203
89.6043 -29.9045 285.203
89.7557 -29.9045 285.203
89.907 -29.9045 285.203
90.0583 -29.9045 285.203
90.2096 -29.9045 285.203
93.0932 -30.8087 293.827
93.2491 -30.8087 293.827
90.6636 -29.9045 285.203
93.5609 -30.8087 293.827
90.9663 -29.9045 285.203
-391.627 128.531 -1225.81
-392.277 128.531 -1225.81
-392.928 128.531 -1225.81
-393.578 128.531 -1225.81
-394.229 128.531 -1225.81
-394.879 128.531 -1225.81
-395.529 128.531 -1225.81
-396.18 128.531 -1225.81
-396.83 128.531 -1225.81
-397.481 128.531 -1225.81
-398.131 128.531 -1225.81
-398.781 128.531 -1225.81
175.209 -56.3795 537.699
166.293 -53.4235 509.507
158.266 -50.7619 484.124
158.522 -50.7619 484.124
158.779 -50.7619 484.124
159.036 -50.7619 484.124
159.293 -50.7619 484.124
-403.985 128.531 -1225.81
-404.635 128.531 -1225.81
-405.285 128.531 -1225.81
266.559 -84.3999 804.934
266.986 -84.3999 804.934
267.413 -84.3999 804.934
267.84 -84.3999 804.934
292.495 -92.0223 877.63
292.961 -92.0223 877.63
293.426 -92.0223 877.63
293.892 -92.0223 877.63
294.358 -92.0223 877.63
294.823 -92.0223 877.63
295.289 -92.0223 877.63
295.755 -92.0223 877.63
296.22 -92.0223 877.63
296.686 -92.0223 877.63
297.152 -92.0223 877.63
272.965 -84.3999 804.934
273.392 -84.3999 804.934
273.819 -84.3999 804.934
274.246 -84.3999 804.934
274.673 -84.3999 804.934
275.1 -84.3999 804.934
61.5158 -18.8436 179.714
61.6112 -18.8436 179.714
61.7065 -18.8436 179.714
61.8019 -18.8436 179.714
61.8972 -18.8436 179.714
-422.846 128.531 -1225.81
-423.497 128.531 -1225.81
65.8359 -19.9505 190.27
65.9369 -19.9505 190.27
66.0378 -19.9505 190.27
66.1388 -19.9505 190.27
66.2398 -19.9505 190.27
-427.399 128.531 -1225.81
-428.049 128.531 -1225.81
-428.7 128.531 -1225.81
-429.35 128.531 -1225.81
-430.001 128.531 -1225.81
-430.651 128.531 -1225.81
-431.301 128.531 -1225.81
-431.952 128.531 -1225.81
-432.602 128.531 -1225.81
-433.253 128.531 -1225.81
-433.903 128.531 -1225.81
114.553 -33.8821 323.138
111.032 -32.7917 312.739
111.198 -32.7917 312.739
104.63 -30.8087 293.827
104.786 -30.8087 293.827
101.862 -29.9045 285.203
102.013 -29.9045 285.203
102.164 -29.9045 285.203
102.316 -29.9045 285.203
102.467 -29.9045 285.203
102.618 -29.9045 285.203
102.77 -29.9045 285.203
102.921 -29.9045 285.203
103.072 -29.9045 285.203
103.224 -29.9045 285.203
103.375 -29.9045 285.203
103.526 -29.9045 285.203
103.678 -29.9045 285.203
103.829 -29.9045 285.203
103.98 -29.9045 285.203
104.132 -29.9045 285.203
104.283 -29.9045 285.203
104.434 -29.9045 285.203
104.585 -29.9045 285.203
104.737 -29.9045 285.203
104.888 -29.9045 285.203
105.039 -29.9045 285.203
105.191 -29.9045 285.203
105.342 -29.9045 285.203
105.493 -29.9045 285.203
-454.065 128.531 -1225.81
-454.716 128.531 -1225.81
-455.366 128.531 -1225.81
-456.017 128.531 -1225.81
-456.667 128.531 -1225.81
-457.317 128.531 -1225.81
-457.968 128.531 -1225.81
-458.618 128.531 -1225.81
-459.269 128.531 -1225.81
-459.919 128.531 -1225.81
-460.569 128.531 -1225.81
-461.22 128.531 -1225.81
-461.87 128.531 -1225.81
-462.521 128.531 -1225.81
-463.171 128.531 -1225.81
-463.821 128.531 -1225.81
-464.472 128.531 -1225.81
-465.122 128.531 -1225.81
-465.773 128.531 -1225.81
-466.423 128.531 -1225.81
-467.073 128.531 -1225.81
-467.724 128.531 -1225.81
-468.374 128.531 -1225.81
-469.025 128.531 -1225.81
-469.675 128.531 -1225.81
-470.325 128.531 -1225.81
-470.976 128.531 -1225.81
-471.626 128.531 -1225.81
248.396 -67.6012 644.722
233.262 -63.3952 604.608
233.583 -63.3952 604.608
233.903 -63.3952 604.608
234.224 -63.3952 604.608
234.545 -63.3952 604.608
250.448 -67.6012 644.722
-476.829 128.531 -1225.81
-477.48 128.531 -1225.81
-478.13 128.531 -1225.81
625.029 -167.792 1600.25
625.878 -167.792 1600.25
538.113 -144.067 1373.99
627.576 -167.792 1600.25
-481.382 128.531 -1225.81
-482.033 128.531 -1225.81
754.346 -200.87 1915.73
755.362 -200.87 1915.73
756.379 -200.87 1915.73
-484.634 128.531 -1225.81
-485.285 128.531 -1225.81
759.428 -200.87 1915.73
64.2121 -16.9615 161.764
64.298 -16.9615 161.764
64.3838 -16.9615 161.764
64.4696 -16.9615 161.764
64.5555 -16.9615 161.764
64.6413 -16.9615 161.764
64.7271 -16.9615 161.764
64.8129 -16.9615 161.764
64.8988 -16.9615 161.764
64.9846 -16.9615 161.764
65.0704 -16.9615 161.764
65.1563 -16.9615 161.764
65.2421 -16.9615 161.764
65.3279 -16.9615 161.764
65.4137 -16.9615 161.764
65.4996 -16.9615 161.764
65.5854 -16.9615 161.764
64.5959 -16.6838 159.116
64.6804 -16.6838 159.116
64.7648 -16.6838 159.116
64.8492 -16.6838 159.116
64.9336 -16.6838 159.116
65.0181 -16.6838 159.116
65.1025 -16.6838 159.116
65.1869 -16.6838 159.116
-502.845 128.531 -1225.81
-503.496 128.531 -1225.81
-504.146 128.531 -1225.81
66.6154 -16.9615 161.764
66.7012 -16.9615 161.764
66.787 -16.9615 161.764
65.7779 -16.6838 159.116
65.8623 -16.6838 159.116
65.9467 -16.6838 159.116
66.0312 -16.6838 159.116
66.1156 -16.6838 159.116
66.2 -16.6838 159.116
66.2844 -16.6838 159.116
66.3689 -16.6838 159.116
66.4533 -16.6838 159.116
66.5377 -16.6838 159.116
66.6221 -16.6838 159.116
66.7066 -16.6838 159.116
66.791 -16.6838 159.116
-515.203 128.531 -1225.81
-515.853 128.531 -1225.81
-516.504 128.531 -1225.81
-517.154 128.531 -1225.81
-517.805 128.531 -1225.81
-518.455 128.531 -1225.81
-519.105 128.531 -1225.81
-519.756 128.531 -1225.81
-520.406 128.531 -1225.81
-521.057 128.531 -1225.81
-521.707 128.531 -1225.81
-522.357 128.531 -1225.81
-523.008 128.531 -1225.81
-523.658 128.531 -1225.81
-524.309 128.531 -1225.81
-524.959 128.531 -1225.81
-525.609 128.531 -1225.81
-526.26 128.531 -1225.81
-526.91 128.531 -1225.81
1026.93 -250.193 2386.13
1028.2 -250.193 2386.13
1029.46 -250.193 2386.13
1030.73 -250.193 2386.13
1031.99 -250.193 2386.13
1033.26 -250.193 2386.13
-531.463 128.531 -1225.81
-532.113 128.531 -1225.81
-532.764 128.531 -1225.81
-533.414 128.531 -1225.81
-534.065 128.531 -1225.81
-534.715 128.531 -1225.81
-861.313 206.784 -1972.13
-862.36 206.784 -1972.13
-863.406 206.784 -1972.13
-864.453 206.784 -1972.13
-865.499 206.784 -1972.13
-866.545 206.784 -1972.13
-867.592 206.784 -1972.13
-539.918 128.531 -1225.81
-540.568 128.531 -1225.81
-541.219 128.531 -1225.81
-541.869 128.531 -1225.81
-872.824 206.784 -1972.13
-873.87 206.784 -1972.13
-874.916 206.784 -1972.13
-1099 259.435 -2474.27
-1100.31 259.435 -2474.27
-1101.62 259.435 -2474.27
-1102.94 259.435 -2474.27
-1104.25 259.435 -2474.27
-1105.56 259.435 -2474.27
-1106.88 259.435 -2474.27
-1108.19 259.435 -2474.27
-1109.5 259.435 -2474.27
-1110.81 259.435 -2474.27
-1112.13 259.435 -2474.27
-1113.44 259.435 -2474.27
-1114.75 259.435 -2474.27
-889.566 206.784 -1972.13
-890.612 206.784 -1972.13
-1118.69 259.435 -2474.27
-1120 259.435 -2474.27
-1121.32 259.435 -2474.27
-1122.63 259.435 -2474.27
-1123.94 259.435 -2474.27
-1125.25 259.435 -2474.27
-1126.57 259.435 -2474.27
-1513.16 348.056 -3319.46
-559.43 128.531 -1225.81
-560.081 128.531 -1225.81
-560.731 128.531 -1225.81
-561.381 128.531 -1225.81
-562.032 128.531 -1225.81
-562.682 128.531 -1225.81
-563.332 128.531 -1225.81
-563.983 128.531 -1225.81
-564.633 128.531 -1225.81
-565.284 128.531 -1225.81
-565.934 128.531 -1225.81
-566.584 128.531 -1225.81
-567.235 128.531 -1225.81
-567.885 128.531 -1225.81
-568.536 128.531 -1225.81
62202.7 -14046.3 133961
62273.8 -14046.3 133961
62344.8 -14046.3 133961
62415.9 -14046.3 133961
62487 -14046.3 133961
62558.1 -14046.3 133961
62629.1 -14046.3 133961
62700.2 -14046.3 133961
62771.3 -14046.3 133961
62842.4 -14046.3 133961
62913.5 -14046.3 133961
62984.5 -14046.3 133961
63055.6 -14046.3 133961
63126.7 -14046.3 133961
63197.8 -14046.3 133961
63268.8 -14046.3 133961
63339.9 -14046.3 133961
1129.48 -250.193 2386.13
1130.75 -250.193 2386.13
1132.01 -250.193 2386.13
1133.28 -250.193 2386.13
63695.3 -14046.3 133961
63766.4 -14046.3 133961
63837.5 -14046.3 133961
63908.5 -14046.3 133961
63979.6 -14046.3 133961
64050.7 -14046.3 133961
64121.8 -14046.3 133961
64192.9 -14046.3 133961
64263.9 -14046.3 133961
-588.698 128.531 -1225.81
-589.348 128.531 -1225.81
-589.999 128.531 -1225.81
-2429.28 528.634 -5041.66
-2431.96 528.634 -5041.66
-2434.63 528.634 -5041.66
-2437.31 528.634 -5041.66
-2439.98 528.634 -5041.66
-1608.26 348.056 -3319.46
-594.552 128.531 -1225.81
-595.202 128.531 -1225.81
-595.852 128.531 -1225.81
-596.503 128.531 -1225.81
-597.153 128.531 -1225.81
-597.804 128.531 -1225.81
-598.454 128.531 -1225.81
-599.104 128.531 -1225.81
65543.3 -14046.3 133961
-600.405 128.531 -1225.81
-601.056 128.531 -1225.81
-601.706 128.531 -1225.81
-602.356 128.531 -1225.81
-2480.11 528.634 -5041.66
-2482.79 528.634 -5041.66
-2485.46 528.634 -5041.66
-2488.14 528.634 -5041.66
-5176.44 1098.61 -10477.6
-5182 1098.61 -10477.6
-606.909 128.531 -1225.81
-607.56 128.531 -1225.81
-608.21 128.531 -1225.81
-608.86 128.531 -1225.81
639.256 127.88 -1225.81
638.605 127.88 -1225.81
637.955 127.88 -1225.81
637.304 127.88 -1225.81
636.654 127.88 -1225.81
636.004 127.88 -1225.81
635.353 127.88 -1225.81
634.703 127.88 -1225.81
634.052 127.88 -1225.81
633.402 127.88 -1225.81
632.752 127.88 -1225.81
632.101 127.88 -1225.81
631.451 127.88 -1225.81
630.8 127.88 -1225.81
630.15 127.88 -1225.81
629.5 127.88 -1225.81
628.849 127.88 -1225.81
628.199 127.88 -1225.81
627.548 127.88 -1225.81
626.898 127.88 -1225.81
626.248 127.88 -1225.81
625.597 127.88 -1225.81
624.947 127.88 -1225.81
624.297 127.88 -1225.81
623.646 127.88 -1225.81
622.996 127.88 -1225.81
622.345 127.88 -1225.81
621.695 127.88 -1225.81
621.044 127.88 -1225.81
620.394 127.88 -1225.81
619.744 127.88 -1225.81
619.093 127.88 -1225.81
618.443 127.88 -1225.81
617.792 127.88 -1225.81
617.142 127.88 -1225.81
616.492 127.88 -1225.81
615.841 127.88 -1225.81
615.191 127.88 -1225.81
614.541 127.88 -1225.81
613.89 127.88 -1225.81
613.24 127.88 -1225.81
612.589 127.88 -1225.81
611.939 127.88 -1225.81
611.289 127.88 -1225.81
610.638 127.88 -1225.81
609.988 127.88 -1225.81
609.337 127.88 -1225.81
608.687 127.88 -1225.81
608.036 127.88 -1225.81
607.386 127.88 -1225.81
606.736 127.88 -1225.81
606.085 127.88 -1225.81
605.435 127.88 -1225.81
604.784 127.88 -1225.81
604.134 127.88 -1225.81
603.484 127.88 -1225.81
602.833 127.88 -1225.81
602.183 127.88 -1225.81
601.533 127.88 -1225.81
600.882 127.88 -1225.81
600.232 127.88 -1225.81
599.581 127.88 -1225.81
598.931 127.88 -1225.81
598.281 127.88 -1225.81
597.63 127.88 -1225.81
596.98 127.88 -1225.81
596.329 127.88 -1225.81
595.679 127.88 -1225.81
595.029 127.88 -1225.81
594.378 127.88 -1225.81
593.728 127.88 -1225.81
593.077 127.88 -1225.81
592.427 127.88 -1225.81
591.777 127.88 -1225.81
591.126 127.88 -1225.81
590.476 127.88 -1225.81
589.825 127.88 -1225.81
589.175 127.88 -1225.81
588.525 127.88 -1225.81
587.874 127.88 -1225.81
587.224 127.88 -1225.81
586.573 127.88 -1225.81
585.923 127.88 -1225.81
585.273 127.88 -1225.81
584.622 127.88 -1225.81
583.972 127.88 -1225.81
583.321 127.88 -1225.81
582.671 127.88 -1225.81
582.021 127.88 -1225.81
581.37 127.88 -1225.81
580.72 127.88 -1225.81
580.069 127.88 -1225.81
579.419 127.88 -1225.81
578.769 127.88 -1225.81
578.118 127.88 -1225.81
577.468 127.88 -1225.81
576.817 127.88 -1225.81
576.167 127.88 -1225.81
575.517 127.88 -1225.81
574.866 127.88 -1225.81
574.216 127.88 -1225.81
573.565 127.88 -1225.81
572.915 127.88 -1225.81
572.265 127.88 -1225.81
571.614 127.88 -1225.81
570.964 127.88 -1225.81
570.313 127.88 -1225.81
569.663 127.88 -1225.81
569.013 127.88 -1225.81
568.362 127.88 -1225.81
567.712 127.88 -1225.81
567.061 127.88 -1225.81
566.411 127.88 -1225.81
565.761 127.88 -1225.81
565.11 127.88 -1225.81
564.46 127.88 -1225.81
563.809 127.88 -1225.81
563.159 127.88 -1225.81
562.509 127.88 -1225.81
561.858 127.88 -1225.81
561.208 127.88 -1225.81
560.557 127.88 -1225.81
559.907 127.88 -1225.81
559.257 127.88 -1225.81
558.606 127.88 -1225.81
557.956 127.88 -1225.81
557.305 127.88 -1225.81
556.655 127.88 -1225.81
556.005 127.88 -1225.81
555.354 127.88 -1225.81
554.704 127.88 -1225.81
554.053 127.88 -1225.81
553.403 127.88 -1225.81
552.753 127.88 -1225.81
552.102 127.88 -1225.81
551.452 127.88 -1225.81
550.801 127.88 -1225.81
550.151 127.88 -1225.81
549.501 127.88 -1225.81
548.85 127.88 -1225.81
548.2 127.88 -1225.81
547.549 127.88 -1225.81
546.899 127.88 -1225.81
546.249 127.88 -1225.81
545.598 127.88 -1225.81
544.948 127.88 -1225.81
544.297 127.88 -1225.81
543.647 127.88 -1225.81
542.997 127.88 -1225.81
542.346 127.88 -1225.81
541.696 127.88 -1225.81
541.045 127.88 -1225.81
540.395 127.88 -1225.81
539.745 127.88 -1225.81
539.094 127.88 -1225.81
538.444 127.88 -1225.81
537.793 127.88 -1225.81
537.143 127.88 -1225.81
536.493 127.88 -1225.81
535.842 127.88 -1225.81
535.192 127.88 -1225.81
534.541 127.88 -1225.81
533.891 127.88 -1225.81
533.241 127.88 -1225.81
532.59 127.88 -1225.81
531.94 127.88 -1225.81
531.289 127.88 -1225.81
530.639 127.88 -1225.81
529.989 127.88 -1225.81
529.338 127.88 -1225.81
528.688 127.88 -1225.81
528.037 127.88 -1225.81
527.387 127.88 -1225.81
526.737 127.88 -1225.81
526.086 127.88 -1225.81
525.436 127.88 -1225.81
524.785 127.88 -1225.81
524.135 127.88 -1225.81
523.485 127.88 -1225.81
522.834 127.88 -1225.81
522.184 127.88 -1225.81
521.533 127.88 -1225.81
520.883 127.88 -1225.81
520.233 127.88 -1225.81
519.582 127.88 -1225.81
518.932 127.88 -1225.81
518.281 127.88 -1225.81
517.631 127.88 -1225.81
516.981 127.88 -1225.81
516.33 127.88 -1225.81
515.68 127.88 -1225.81
515.029 127.88 -1225.81
514.379 127.88 -1225.81
513.729 127.88 -1225.81
513.078 127.88 -1225.81
512.428 127.88 -1225.81
511.777 127.88 -1225.81
511.127 127.88 -1225.81
510.477 127.88 -1225.81
509.826 127.88 -1225.81
509.176 127.88 -1225.81
508.525 127.88 -1225.81
507.875 127.88 -1225.81
507.225 127.88 -1225.81
506.574 127.88 -1225.81
505.924 127.88 -1225.81
505.273 127.88 -1225.81
504.623 127.88 -1225.81
503.973 127.88 -1225.81
503.322 127.88 -1225.81
502.672 127.88 -1225.81
502.021 127.88 -1225.81
501.371 127.88 -1225.81
500.721 127.88 -1225.81
500.07 127.88 -1225.81
499.42 127.88 -1225.81
498.769 127.88 -1225.81
498.119 127.88 -1225.81
497.469 127.88 -1225.81
496.818 127.88 -1225.81
496.168 127.88 -1225.81
495.517 127.88 -1225.81
494.867 127.88 -1225.81
494.217 127.88 -1225.81
493.566 127.88 -1225.81
492.916 127.88 -1225.81
492.265 127.88 -1225.81
491.615 127.88 -1225.81
490.965 127.88 -1225.81
490.314 127.88 -1225.81
489.664 127.88 -1225.81
489.013 127.88 -1225.81
488.363 127.88 -1225.81
487.713 127.88 -1225.81
487.062 127.88 -1225.81
486.412 127.88 -1225.81
485.761 127.88 -1225.81
485.111 127.88 -1225.81
484.461 127.88 -1225.81
483.81 127.88 -1225.81
483.16 127.88 -1225.81
482.509 127.88 -1225.81
481.859 127.88 -1225.81
481.209 127.88 -1225.81
480.558 127.88 -1225.81
479.908 127.88 -1225.81
479.257 127.88 -1225.81
478.607 127.88 -1225.81
477.957 127.88 -1225.81
477.306 127.88 -1225.81
476.656 127.88 -1225.81
476.005 127.88 -1225.81
475.355 127.88 -1225.81
474.705 127.88 -1225.81
474.054 127.88 -1225.81
473.404 127.88 -1225.81
472.753 127.88 -1225.81
472.103 127.88 -1225.81
471.453 127.88 -1225.81
470.802 127.88 -1225.81
470.152 127.88 -1225.81
469.501 127.88 -1225.81
468.851 127.88 -1225.81
468.201 127.88 -1225.81
467.55 127.88 -1225.81
466.9 127.88 -1225.81
466.249 127.88 -1225.81
465.599 127.88 -1225.81
464.949 127.88 -1225.81
464.298 127.88 -1225.81
463.648 127.88 -1225.81
462.997 127.88 -1225.81
462.347 127.88 -1225.81
461.697 127.88 -1225.81
461.046 127.88 -1225.81
460.396 127.88 -1225.81
459.745 127.88 -1225.81
459.095 127.88 -1225.81
458.445 127.88 -1225.81
457.794 127.88 -1225.81
457.144 127.88 -1225.81
456.493 127.88 -1225.81
455.843 127.88 -1225.81
455.193 127.88 -1225.81
454.542 127.88 -1225.81
453.892 127.88 -1225.81
453.241 127.88 -1225.81
452.591 127.88 -1225.81
451.941 127.88 -1225.81
451.29 127.88 -1225.81
450.64 127.88 -1225.81
449.99 127.88 -1225.81
449.339 127.88 -1225.81
448.689 127.88 -1225.81
448.038 127.88 -1225.81
447.388 127.88 -1225.81
446.737 127.88 -1225.81
446.087 127.88 -1225.81
445.437 127.88 -1225.81
444.786 127.88 -1225.81
444.136 127.88 -1225.81
443.486 127.88 -1225.81
442.835 127.88 -1225.81
442.185 127.88 -1225.81
441.534 127.88 -1225.81
440.884 127.88 -1225.81
440.234 127.88 -1225.81
439.583 127.88 -1225.81
438.933 127.88 -1225.81
438.282 127.88 -1225.81
437.632 127.88 -1225.81
436.982 127.88 -1225.81
436.331 127.88 -1225.81
435.681 127.88 -1225.81
435.03 127.88 -1225.81
434.38 127.88 -1225.81
433.73 127.88 -1225.81
433.079 127.88 -1225.81
432.429 127.88 -1225.81
431.778 127.88 -1225.81
431.128 127.88 -1225.81
430.478 127.88 -1225.81
429.827 127.88 -1225.81
429.177 127.88 -1225.81
428.526 127.88 -1225.81
427.876 127.88 -1225.81
427.226 127.88 -1225.81
426.575 127.88 -1225.81
425.925 127.88 -1225.81
425.274 127.88 -1225.81
424.624 127.88 -1225.81
423.974 127.88 -1225.81
423.323 127.88 -1225.81
422.673 127.88 -1225.81
422.022 127.88 -1225.81
421.372 127.88 -1225.81
420.722 127.88 -1225.81
420.071 127.88 -1225.81
419.421 127.88 -1225.81
418.77 127.88 -1225.81
418.12 127.88 -1225.81
417.47 127.88 -1225.81
416.819 127.88 -1225.81
416.169 127.88 -1225.81
415.518 127.88 -1225.81
414.868 127.88 -1225.81
414.218 127.88 -1225.81
413.567 127.88 -1225.81
412.917 127.88 -1225.81
412.266 127.88 -1225.81
411.616 127.88 -1225.81
410.966 127.88 -1225.81
410.315 127.88 -1225.81
409.665 127.88 -1225.81
409.014 127.88 -1225.81
408.364 127.88 -1225.81
407.714 127.88 -1225.81
407.063 127.88 -1225.81
406.413 127.88 -1225.81
405.762 127.88 -1225.81
405.112 127.88 -1225.81
404.462 127.88 -1225.81
403.811 127.88 -1225.81
403.161 127.88 -1225.81
402.51 127.88 -1225.81
401.86 127.88 -1225.81
401.21 127.88 -1225.81
400.559 127.88 -1225.81
399.909 127.88 -1225.81
399.258 127.88 -1225.81
398.608 127.88 -1225.81
397.958 127.88 -1225.81
397.307 127.88 -1225.81
396.657 127.88 -1225.81
396.006 127.88 -1225.81
395.356 127.88 -1225.81
394.706 127.88 -1225.81
394.055 127.88 -1225.81
393.405 127.88 -1225.81
392.754 127.88 -1225.81
392.104 127.88 -1225.81
391.454 127.88 -1225.81
390.803 127.88 -1225.81
390.153 127.88 -1225.81
389.502 127.88 -1225.81
388.852 127.88 -1225.81
388.202 127.88 -1225.81
387.551 127.88 -1225.81
386.901 127.88 -1225.81
386.25 127.88 -1225.81
385.6 127.88 -1225.81
384.95 127.88 -1225.81
384.299 127.88 -1225.81
383.649 127.88 -1225.81
382.998 127.88 -1225.81
382.348 127.88 -1225.81
381.698 127.88 -1225.81
381.047 127.88 -1225.81
380.397 127.88 -1225.81
379.746 127.88 -1225.81
379.096 127.88 -1225.81
378.446 127.88 -1225.81
377.795 127.88 -1225.81
377.145 127.88 -1225.81
376.494 127.88 -1225.81
375.844 127.88 -1225.81
375.194 127.88 -1225.81
374.543 127.88 -1225.81
373.893 127.88 -1225.81
373.242 127.88 -1225.81
372.592 127.88 -1225.81
371.942 127.88 -1225.81
371.291 127.88 -1225.81
370.641 127.88 -1225.81
369.99 127.88 -1225.81
369.34 127.88 -1225.81
368.69 127.88 -1225.81
368.039 127.88 -1225.81
367.389 127.88 -1225.81
366.738 127.88 -1225.81
366.088 127.88 -1225.81
365.438 127.88 -1225.81
364.787 127.88 -1225.81
364.137 127.88 -1225.81
363.486 127.88 -1225.81
362.836 127.88 -1225.81
362.186 127.88 -1225.81
361.535 127.88 -1225.81
360.885 127.88 -1225.81
360.234 127.88 -1225.81
359.584 127.88 -1225.81
358.934 127.88 -1225.81
358.283 127.88 -1225.81
357.633 127.88 -1225.81
356.982 127.88 -1225.81
356.332 127.88 -1225.81
355.682 127.88 -1225.81
355.031 127.88 -1225.81
354.381 127.88 -1225.81
353.73 127.88 -1225.81
353.08 127.88 -1225.81
352.43 127.88 -1225.81
351.779 127.88 -1225.81
351.129 127.88 -1225.81
350.478 127.88 -1225.81
349.828 127.88 -1225.81
349.178 127.88 -1225.81
348.527 127.88 -1225.81
347.877 127.88 -1225.81
347.226 127.88 -1225.81
346.576 127.88 -1225.81
345.926 127.88 -1225.81
345.275 127.88 -1225.81
344.625 127.88 -1225.81
343.974 127.88 -1225.81
343.324 127.88 -1225.81
342.674 127.88 -1225.81
342.023 127.88 -1225.81
341.373 127.88 -1225.81
340.722 127.88 -1225.81
340.072 127.88 -1225.81
339.422 127.88 -1225.81
338.771 127.88 -1225.81
338.121 127.88 -1225.81
337.47 127.88 -1225.81
336.82 127.88 -1225.81
336.17 127.88 -1225.81
335.519 127.88 -1225.81
334.869 127.88 -1225.81
334.218 127.88 -1225.81
333.568 127.88 -1225.81
332.918 127.88 -1225.81
332.267 127.88 -1225.81
331.617 127.88 -1225.81
330.966 127.88 -1225.81
330.316 127.88 -1225.81
329.666 127.88 -1225.81
329.015 127.88 -1225.81
328.365 127.88 -1225.81
327.714 127.88 -1225.81
327.064 127.88 -1225.81
326.414 127.88 -1225.81
325.763 127.88 -1225.81
325.113 127.88 -1225.81
324.462 127.88 -1225.81
323.812 127.88 -1225.81
323.162 127.88 -1225.81
322.511 127.88 -1225.81
321.861 127.88 -1225.81
321.21 127.88 -1225.81
320.56 127.88 -1225.81
319.91 127.88 -1225.81
319.259 127.88 -1225.81
318.609 127.88 -1225.81
317.958 127.88 -1225.81
317.308 127.88 -1225.81
316.658 127.88 -1225.81
316.007 127.88 -1225.81
315.357 127.88 -1225.81
314.706 127.88 -1225.81
314.056 127.88 -1225.81
313.406 127.88 -1225.81
312.755 127.88 -1225.81
312.105 127.88 -1225.81
311.454 127.88 -1225.81
310.804 127.88 -1225.81
310.154 127.88 -1225.81
309.503 127.88 -1225.81
308.853 127.88 -1225.81
308.202 127.88 -1225.81
307.552 127.88 -1225.81
306.902 127.88 -1225.81
306.251 127.88 -1225.81
305.601 127.88 -1225.81
304.95 127.88 -1225.81
304.3 127.88 -1225.81
303.65 127.88 -1225.81
302.999 127.88 -1225.81
302.349 127.88 -1225.81
301.698 127.88 -1225.81
301.048 127.88 -1225.81
300.398 127.88 -1225.81
299.747 127.88 -1225.81
299.097 127.88 -1225.81
298.446 127.88 -1225.81
297.796 127.88 -1225.81
297.146 127.88 -1225.81
296.495 127.88 -1225.81
295.845 127.88 -1225.81
295.194 127.88 -1225.81
294.544 127.88 -1225.81
293.894 127.88 -1225.81
293.243 127.88 -1225.81
292.593 127.88 -1225.81
291.942 127.88 -1225.81
291.292 127.88 -1225.81
290.642 127.88 -1225.81
289.991 127.88 -1225.81
289.341 127.88 -1225.81
288.69 127.88 -1225.81
288.04 127.88 -1225.81
287.39 127.88 -1225.81
286.739 127.88 -1225.81
286.089 127.88 -1225.81
285.439 127.88 -1225.81
284.788 127.88 -1225.81
284.138 127.88 -1225.81
283.487 127.88 -1225.81
282.837 127.88 -1225.81
282.186 127.88 -1225.81
281.536 127.88 -1225.81
280.886 127.88 -1225.81
280.235 127.88 -1225.81
279.585 127.88 -1225.81
278.935 127.88 -1225.81
278.284 127.88 -1225.81
277.634 127.88 -1225.81
276.983 127.88 -1225.81
276.333 127.88 -1225.81
275.682 127.88 -1225.81
275.032 127.88 -1225.81
274.382 127.88 -1225.81
273.731 127.88 -1225.81
273.081 127.88 -1225.81
272.431 127.88 -1225.81
271.78 127.88 -1225.81
271.13 127.88 -1225.81
270.479 127.88 -1225.81
269.829 127.88 -1225.81
269.179 127.88 -1225.81
268.528 127.88 -1225.81
267.878 127.88 -1225.81
267.227 127.88 -1225.81
266.577 127.88 -1225.81
265.927 127.88 -1225.81
265.276 127.88 -1225.81
264.626 127.88 -1225.81
263.975 127.88 -1225.81
263.325 127.88 -1225.81
262.675 127.88 -1225.81
262.024 127.88 -1225.81
261.374 127.88 -1225.81
260.723 127.88 -1225.81
260.073 127.88 -1225.81
259.423 127.88 -1225.81
258.772 127.88 -1225.81
258.122 127.88 -1225.81
257.471 127.88 -1225.81
256.821 127.88 -1225.81
256.171 127.88 -1225.81
255.52 127.88 -1225.81
254.87 127.88 -1225.81
254.219 127.88 -1225.81
253.569 127.88 -1225.81
252.919 127.88 -1225.81
252.268 127.88 -1225.81
251.618 127.88 -1225.81
250.967 127.88 -1225.81
250.317 127.88 -1225.81
249.667 127.88 -1225.81
249.016 127.88 -1225.81
248.366 127.88 -1225.81
247.715 127.88 -1225.81
247.065 127.88 -1225.81
246.415 127.88 -1225.81
245.764 127.88 -1225.81
245.114 127.88 -1225.81
244.463 127.88 -1225.81
243.813 127.88 -1225.81
243.163 127.88 -1225.81
242.512 127.88 -1225.81
241.862 127.88 -1225.81
241.211 127.88 -1225.81
240.561 127.88 -1225.81
239.911 127.88 -1225.81
239.26 127.88 -1225.81
238.61 127.88 -1225.81
237.959 127.88 -1225.81
237.309 127.88 -1225.81
236.659 127.88 -1225.81
236.008 127.88 -1225.81
235.358 127.88 -1225.81
234.707 127.88 -1225.81
234.057 127.88 -1225.81
233.407 127.88 -1225.81
232.756 127.88 -1225.81
232.106 127.88 -1225.81
231.455 127.88 -1225.81
230.805 127.88 -1225.81
230.155 127.88 -1225.81
229.504 127.88 -1225.81
228.854 127.88 -1225.81
228.203 127.88 -1225.81
227.553 127.88 -1225.81
226.903 127.88 -1225.81
226.252 127.88 -1225.81
225.602 127.88 -1225.81
224.951 127.88 -1225.81
224.301 127.88 -1225.81
223.651 127.88 -1225.81
223 127.88 -1225.81
222.35 127.88 -1225.81
221.699 127.88 -1225.81
221.049 127.88 -1225.81
220.399 127.88 -1225.81
219.748 127.88 -1225.81
219.098 127.88 -1225.81
218.447 127.88 -1225.81
217.797 127.88 -1225.81
217.147 127.88 -1225.81
216.496 127.88 -1225.81
215.846 127.88 -1225.81
215.195 127.88 -1225.81
214.545 127.88 -1225.81
213.895 127.88 -1225.81
213.244 127.88 -1225.81
212.594 127.88 -1225.81
211.943 127.88 -1225.81
211.293 127.88 -1225.81
210.643 127.88 -1225.81
209.992 127.88 -1225.81
209.342 127.88 -1225.81
208.691 127.88 -1225.81
208.041 127.88 -1225.81
207.391 127.88 -1225.81
206.74 127.88 -1225.81
206.09 127.88 -1225.81
205.439 127.88 -1225.81
204.789 127.88 -1225.81
204.139 127.88 -1225.81
203.488 127.88 -1225.81
202.838 127.88 -1225.81
202.187 127.88 -1225.81
201.537 127.88 -1225.81
200.887 127.88 -1225.81
200.236 127.88 -1225.81
199.586 127.88 -1225.81
198.935 127.88 -1225.81
198.285 127.88 -1225.81
197.635 127.88 -1225.81
196.984 127.88 -1225.81
196.334 127.88 -1225.81
195.683 127.88 -1225.81
195.033 127.88 -1225.81
194.383 127.88 -1225.81
193.732 127.88 -1225.81
193.082 127.88 -1225.81
192.431 127.88 -1225.81
191.781 127.88 -1225.81
191.131 127.88 -1225.81
190.48 127.88 -1225.81
189.83 127.88 -1225.81
189.179 127.88 -1225.81
188.529 127.88 -1225.81
187.879 127.88 -1225.81
187.228 127.88 -1225.81
186.578 127.88 -1225.81
185.927 127.88 -1225.81
